-6.705154710048524258e-01 -1.462629154016211741e-01 2.338197314805692706e+00
-8.371387037721123026e-02 -7.802469616465235180e-02 2.419185176948095872e+00
8.517952632654977041e-01 -1.475085493891941768e+00 2.933694547117066787e+00
-5.390338260238720647e-01 -1.676105924351099841e+00 3.575639803157592223e+00
3.833694479840642488e-01 -5.001336567629044438e-02 2.640542124074711783e+00
1.615222622956661080e+00 3.428483097448953298e-02 2.880916036153850612e+00
-3.504094377873536725e-01 1.719437891105106697e-01 2.571755405752353063e+00
2.560842898927399025e-01 1.737558561495653464e-01 2.471024286295960160e+00
1.287549763566322003e+00 1.910927004920107697e-01 2.659646137289916279e+00
-4.449142084189716684e-02 1.065138275372395915e-01 2.559326472684729126e+00
1.035102828716802925e+00 -4.005185582138826028e-02 2.761843993965779287e+00
7.309613519165431006e-01 -1.634519693456174982e+00 2.911944506502459173e+00
1.231133594386568886e+00 -4.927463947984460080e-01 3.223042249082248567e+00
8.736907044576294190e-01 2.781805058867852232e-01 2.498326594106863752e+00
9.294293762871186360e-01 2.080498011743860953e-01 2.554062031858414628e+00
-2.470584625194920392e-01 6.654227148542819492e-01 2.323907931905711877e+00
-1.179019082553721676e+00 -2.805776034269261698e-01 2.668373886242792814e+00
-1.116486507165401765e-01 -1.480146925969809679e+00 3.410170267838766200e+00
7.044726181776808094e-01 1.068535266013137530e-03 2.675356759235708370e+00
3.935578092845846143e-01 1.961328435442925011e-01 2.514274668698496473e+00
3.602487344057661578e-01 -1.150811101718233420e+00 3.328903433482814922e+00
9.390370823204918782e-02 -7.312447756832436419e-01 2.395955647400244359e+00
1.189061528837321191e+00 -1.514361488535989064e+00 3.171377015091739526e+00
6.036488030252603609e-01 -8.959141414637272760e-03 2.675911293901188870e+00
9.817669272482500986e-01 8.691658664749368768e-02 2.649639857573197865e+00
4.811198821641300971e-01 1.494146810524991098e-01 2.547336193940575644e+00
1.299464932238979076e+00 -7.464472080761253014e-01 3.497751953677684433e+00
-7.270970834595840149e-01 -2.744625559806913029e-01 2.120783806724042542e+00
-7.549974189663495316e-01 -1.797896483811626478e+00 3.652674486041640467e+00
1.641584576372359994e+00 -2.419989018739809872e-01 3.105693329609338083e+00
7.564646299571459176e-01 -1.294285624138915569e+00 3.054348062404963038e+00
1.989565464558898933e-01 -1.269099682295639631e-01 2.720940716056116759e+00
-6.936383201815197186e-01 -9.670907510874295898e-01 2.688584006490664535e+00
-4.185924008137651420e-01 -1.371482710925244985e+00 2.496856375868533817e+00
4.179760533223380592e-01 -1.465683583542421453e-01 2.725522288196076559e+00
7.203421490672934357e-02 1.816410933282615048e-01 2.485846908640723107e+00
9.466146190182957998e-01 -1.407955204220186829e+00 2.933814489701971784e+00
4.790878109349149261e-01 -4.365673051730433740e-01 3.011443969322439518e+00
-1.410881700004494421e+00 -1.200294246107211471e+00 3.079728601770535867e+00
1.083925445527963438e-01 -6.833049329039602160e-01 3.294649592624861789e+00
-5.400117564199358178e-02 3.695104641818038882e-01 2.382428930527062061e+00
1.724649453432234303e+00 -1.950358463826832978e+00 4.370866251311447570e+00
1.548078904915504594e+00 -5.595292069220897391e-01 3.366942538833870291e+00
8.128534044746460463e-02 -3.658992537158248792e-01 2.963057889647085830e+00
7.631716702897090032e-01 -6.389659096383076831e-02 2.736769885245369238e+00
3.221187340046869352e-01 -1.641514736615030001e+00 3.084426469677731486e+00
1.775138262182781368e+00 -2.399327111450389460e-01 3.151461676831404102e+00
-5.503083933878583078e-02 -2.236990308793962434e-01 2.358041522587912553e+00
1.491827824162990312e+00 -8.386772095731303001e-01 3.635011342852056071e+00
5.388049072807936657e-01 -1.472251725007772460e+00 3.057640759590906310e+00
3.426397567598675753e-01 1.043280147192672258e-01 2.542957506840941129e+00
-2.385050687086001098e-01 2.029342069543542681e-01 2.525496790829585336e+00
2.224093992979625511e-01 -2.045139968134224162e-01 2.790815375951821942e+00
1.714585599436802221e+00 -2.833290338037786071e-02 2.963804124545295959e+00
-7.820770968425849734e-01 6.000935196702557040e-01 2.474688822869123506e+00
9.847703742686798600e-01 -1.734009880544870486e+00 2.807748859137257913e+00
1.053425240225887238e+00 -3.383994570830073378e-01 3.034058379154952689e+00
3.107352965728230054e-01 -6.558902355904466797e-01 2.897395703520561749e+00
7.920691768529355414e-01 -7.244406063746845481e-01 3.392583765054325795e+00
8.569468753958681129e-01 1.424066405938880786e-01 2.586519594260199728e+00
1.592923484996598082e+00 -1.710648334825974448e+00 4.194959621924469140e+00
-7.311687725982662922e-02 2.319010561182979213e-01 2.473167495921158920e+00
-3.367471354645823478e-02 6.317397735105907408e-01 2.306061635953161382e+00
8.496139912276559070e-01 -1.205038034920355994e+00 3.066935461291471654e+00
1.330716940840802387e+00 -5.015993044823615632e-01 3.254109247075575695e+00
2.730802026519429937e-02 -8.184255421804615960e-01 3.451636023554412791e+00
1.029597015228329582e+00 -1.825865056260268515e+00 2.833875675161340979e+00
3.378769449115082701e-01 1.527797180287712164e-01 2.547123888111724188e+00
-6.442859475550040127e-01 6.934999149541718477e-01 2.394544578532896484e+00
7.230205290006944674e-01 -1.573323957909799065e+00 2.938583565716226698e+00
1.420595664732603680e+00 -9.525352251266633319e-01 3.740915446837851377e+00
9.465109469399595188e-01 2.485002327236072173e-01 2.530772843136679828e+00
-1.110079073895235746e+00 -1.660154104264837116e-01 2.484531841827588128e+00
-9.201301145842839535e-01 -1.004053549688530778e+00 2.750511356635232829e+00
-1.221370801142998008e-01 -8.133780629855205113e-01 2.412184360318258225e+00
-1.005092811507162454e+00 3.148853742337325290e-01 2.704744943816858704e+00
-1.185326451593227359e+00 -1.086004290936660732e+00 2.833920682975835881e+00
1.092406289111542916e+00 -1.896565104093389520e+00 2.932993494892446318e+00
-6.501057875507538775e-01 1.480534363936611975e-01 2.663566856564407281e+00
3.941643626408142809e-01 -1.450965876901180618e+00 3.138267859001203419e+00
1.671496203184281271e+00 -1.919050252391821809e+00 4.282798760603791166e+00
1.610775184589500642e+00 1.482431895650404563e-01 2.802522458187001853e+00
-6.739627596959134603e-01 3.437325498228060994e-02 2.755854423615902604e+00
-1.316358474908216891e-01 1.102749010567615207e-01 2.571930384360727739e+00
1.173606838730777646e+00 -1.113234513068130482e+00 3.256494677168574992e+00
3.690616601350175108e-01 3.972042878746770977e-01 2.388003922870395090e+00
7.203808143785658258e-01 -1.177621452044785855e-01 2.778861830864959970e+00
2.012236009512502477e-01 -7.338608278943138385e-01 3.343241470949803507e+00
-1.946938706350055837e+00 -7.321965963630727714e-01 3.107805806820138184e+00
1.154860102231986874e+00 -7.965417986723879462e-01 3.340313898646086965e+00
-1.481804635948090310e+00 2.064850541571676690e-01 2.917481135043112239e+00
-9.816557227396565111e-01 -1.100919323827505902e+00 2.857315728288648327e+00
5.629838240912864444e-01 -7.062481905735057408e-02 2.727792890042743945e+00
-5.590292940624501661e-01 -1.012178047358916144e+00 2.696725450988978423e+00
-3.866163480294595445e-01 -1.104742116125772444e+00 2.470939080782674768e+00
7.990410246522964277e-01 -2.232122333403221415e-01 2.885271863167624851e+00
1.194081197170172803e+00 -1.918759899221933463e+00 3.104300674403170923e+00
1.202239793068847984e+00 -4.740992627719131658e-01 3.197776372905920095e+00
1.013880250146241613e+00 -1.703900728854980118e+00 2.821000324773982104e+00
1.399864538904541433e+00 -1.888015311119155770e+00 3.470587166126141376e+00
-6.839640697768150090e-01 4.968712580987757477e-01 2.506067674193510619e+00
-1.588069623851467105e+00 -1.488696754492543128e+00 3.257173243985759914e+00
-1.468765035092748361e+00 -4.506652208217296618e-01 2.816981925453704072e+00
-6.360994527439534085e-02 -1.160965979973229256e+00 2.775933709378310521e+00
-1.463331721914163941e-01 -4.973866461033844000e-01 3.128240972131353548e+00
9.423240083931205824e-02 -3.919162368962036957e-02 2.655734310825842659e+00
-1.006592974808307117e+00 -5.571409797439177414e-01 2.788035967070826349e+00
4.449524798239212209e-01 -1.108945967543002009e+00 3.309843740484714303e+00
-7.071661232968984301e-01 2.688770267090245802e-03 2.789561823055581424e+00
1.766455984379607491e+00 -9.727919392760089323e-01 3.837644715137465301e+00
-8.141100225965749448e-01 -2.103949368133190001e-01 2.430756246386226671e+00
1.111125957226547278e+00 -1.084004795830399992e+00 3.145962912467699990e+00
3.584151116362544465e-01 -9.191265564528897647e-01 3.465956556514751874e+00
-9.315409706417845381e-01 4.940661905764864859e-01 2.572756564438057669e+00
1.159117497116298079e+00 -1.238697404823382975e+00 3.189199387720536016e+00
4.791508140048760800e-01 -6.074897436553218233e-01 3.193722253019634749e+00
6.974812293861382129e-01 -1.799613047311263703e-01 2.833795287021029896e+00
-4.208412860688865997e-01 -2.888144253299139153e-01 2.392693773986544592e+00
-2.199695574081709237e-01 -5.269570104540725053e-01 3.171000654222369430e+00
1.292321042510079954e+00 -1.059924805789669300e+00 3.503691286766148494e+00
7.812597047345110068e-01 -6.505285423060647165e-02 2.739906492805598059e+00
-3.569271302834042814e-01 -7.735768883618987513e-01 2.404660655134222669e+00
1.623671162113643707e+00 -1.665510062999845831e+00 4.211375400905897237e+00
6.047670797670190446e-01 -1.204685831805171414e+00 3.170856527030687211e+00
-2.297514368358111181e-01 -6.589581327819883372e-01 2.271811683270759552e+00
1.167890521430683615e+00 -2.883958254424348056e-01 3.010455123496748708e+00
-1.367339551371724360e+00 -1.178420009799073132e+00 3.048557711727821307e+00
-2.736873707367177833e-01 7.140608351657409258e-01 2.307796162807563611e+00
-3.959359369043600196e-01 1.922150676570805183e-01 2.568119923541252625e+00
1.519775187698553021e+00 5.105336788135972359e-02 2.834359600580577787e+00
-1.257453178077363232e+00 -1.260572808309591952e+00 2.862272338236712343e+00
-1.383693366246515177e+00 3.031545068370616880e-01 2.822098444263057004e+00
2.352386606288670023e-02 7.939869382714426216e-02 2.569241818695985113e+00
1.122496380505237923e+00 -1.748429474121907967e+00 3.005491388002005326e+00
1.311604987544594980e+00 -6.287474397132193360e-01 3.378272513776445773e+00
1.245784344139192479e+00 2.315280413371337831e-01 2.620868863297649565e+00
1.066309654751927294e+00 -8.149244140678472137e-01 3.237903538211116317e+00
1.075855384586044128e+00 -1.619177969107959525e+00 2.943662478127213156e+00
4.815131987121467616e-01 2.638750584812418198e-01 2.468003386327340287e+00
-1.954823973330877207e+00 -1.393609350808655556e-01 3.256448758837154234e+00
5.620788895303913124e-01 2.674904809227403035e-01 2.469042050281969658e+00
1.357433898832263175e-01 -4.511246971752153057e-01 3.044228181320780546e+00
7.344177218032709176e-01 -1.346825346039229654e+00 3.035978067832235894e+00
1.065956052421158207e+00 -7.610380995767573875e-01 3.276590399286328559e+00
1.841809137533464202e+00 -4.339161537952512804e-02 3.024722960987686005e+00
-2.073555839249285881e-03 -1.653310263114581069e+00 3.138853285514860314e+00
9.164884115374682949e-01 -1.520823464971947425e+00 2.895312597867625293e+00
-6.145230956203673323e-03 -4.008380478976104611e-01 3.008869889922817897e+00
9.054754046270323542e-01 -1.250519556573726154e+00 3.022456425920145406e+00
8.708672664699348420e-01 -2.264863710168366073e-01 2.896655785929077798e+00
-5.963984319664508149e-01 3.961439535390076649e-03 2.759863206537373603e+00
-2.070216235498627988e+00 -7.435875860667015003e-01 3.029924068497692247e+00
-2.326668317647437867e-01 4.667820813027725446e-01 2.373479792144314260e+00
1.697844993129179025e+00 -6.565568774658009366e-01 3.502697238932324986e+00
-1.587215950761145633e+00 1.907447414940873776e-01 2.959862460956663277e+00
2.313802781662432917e-02 -8.018166271143096768e-01 3.434094483763700634e+00
-2.176425016354355257e-01 4.228246650261940909e-01 2.381764082481332423e+00
1.593908546782963898e-01 -8.745829690652378030e-01 2.436880187902965123e+00
2.728126566898146921e-01 -1.216869815113875264e+00 3.110468892849092448e+00
-9.027929439949464729e-01 4.076399562125727627e-01 2.616499477202474555e+00
1.067196537335132644e+00 2.215488750670855378e-01 2.576149030867251888e+00
8.779367883958398844e-01 -1.817050648142775948e+00 2.810255815146614822e+00
7.239158553645141936e-02 -2.318876035551376003e-02 2.645367065921811811e+00
6.870585312823457302e-01 -1.553205681516456327e+00 2.959542789313872824e+00
4.416599850991023701e-01 -6.015983399875990401e-01 3.188103750333287856e+00
1.004353986880006211e+00 -2.022923494592454574e-02 2.739188653280596242e+00
-5.868879737549959064e-01 3.398917350336136955e-01 2.515753038473757641e+00
1.235818133769025051e+00 -3.576375310490537696e-01 3.091366771532284563e+00
-1.730463175898411032e+00 -2.302234469885121038e-01 2.888722106302376247e+00
1.881552296860712348e+00 -1.085942164879604821e+00 3.982054224989449498e+00
-2.102465098348957895e-01 4.393877454016053008e-01 2.370940914865204974e+00
-1.972562294361698720e+00 -9.731506317172948783e-01 3.046115415650474390e+00
5.972248440648887380e-01 1.362859415469541702e-01 2.560867996285744574e+00
8.074406284457734673e-01 -1.373064209411846370e+00 2.995082082494529008e+00
1.710882806940411838e+00 -1.858330576731474837e+00 4.371186586473368330e+00
-7.083679757324712334e-01 2.974105852097652658e-02 2.768440575391340364e+00
6.389304614414703654e-01 9.766436115851651056e-02 2.593488923612685237e+00
7.734434525927197379e-01 -1.072561114103365076e+00 3.176526891923175722e+00
9.906302508265035778e-01 -1.102630911836243843e+00 3.076992344908495713e+00
-1.402531626944566012e+00 -1.256082085610898957e+00 3.133544479265591765e+00
5.528920891538346982e-01 -1.559639232172963075e+00 3.012500325212219998e+00
-6.108017212011032093e-01 6.054453649141202654e-01 2.429214447381073061e+00
1.585374060051349510e+00 -1.676762800811907095e+00 4.180414292046065405e+00
1.726190616966559954e+00 -1.752761149316191869e+00 4.346342065258686382e+00
-2.904133853845063395e-01 1.334142029002455265e-01 2.586149891794083722e+00
1.271788241412532106e+00 -1.704197100914594865e+00 3.279188232767391575e+00
-1.080336696616617242e-01 2.441998305337040875e-01 2.471079558746684057e+00
4.254783098559670185e-01 -1.322902933349944465e+00 3.190012679336666324e+00
-5.470062249896920914e-01 -9.251693073178501869e-01 2.526839138766202364e+00
1.690757118584640395e+00 -1.565288456182412746e+00 4.339005890943433030e+00
-1.298445695422910662e-01 -4.581406899695205093e-01 2.132225833598778930e+00
-1.386124861639984607e-01 -1.014870706851996873e+00 2.622793732095363151e+00
-4.112819794029196618e-01 -3.719303795786805811e-01 3.051204462368208858e+00
-1.493187217879128115e+00 -8.482437813928476178e-01 2.836751850914260853e+00
-1.923370541088256225e-01 -9.854607636584468144e-01 2.584532802997366208e+00
-6.549336489576680354e-01 1.832751023387257927e-02 2.329686734243502588e+00
-1.112103401417344761e-01 -1.724709020577533947e+00 3.166089230202425053e+00
-4.133079889416244601e-01 -8.633604209326317669e-02 2.790069460257142531e+00
-8.614172256436014585e-02 -7.597013424386445113e-01 3.399205252095649055e+00
1.318609898995341867e+00 -1.198272212220274024e+00 3.506032800402029359e+00
-1.837765993282103105e+00 -1.003167708948447201e+00 2.979687323515071817e+00
1.191684253970986651e+00 -4.960250475637240086e-02 2.806970591759208489e+00
1.353365604464048744e+00 1.765192915064169865e-01 2.690224534646326493e+00
1.358055717085879799e+00 -1.629679949775708847e+00 3.453413303284876612e+00
-2.273215700361674863e-02 3.995037276483999200e-01 2.360530533507737339e+00
-1.291454454015628306e+00 1.624334066542654220e-01 2.833446338015205068e+00
-1.344813197639748159e-01 -3.181134591038839998e-01 2.248869431219587156e+00
1.536698643206376280e+00 1.380537217627952895e-01 2.780677480011015223e+00
6.514972702338429622e-01 -1.051932490187711178e+00 3.244021212452941949e+00
-1.375281631239783531e+00 1.363108503206037492e-01 2.876871012938140737e+00
3.547627071271480803e-01 -4.463915014935310177e-01 3.023936403292200037e+00
1.139319640174883519e+00 -1.975791221945913945e+00 3.004185721516956953e+00
1.211914164238871550e+00 -1.435687187739862480e+00 3.233262684574157664e+00
4.020136464463985870e-02 -1.708756901212403201e-01 2.780143269254549576e+00
1.795877993360628810e+00 -4.341799042941322795e-01 3.325638457035223983e+00
3.316414535332223301e-01 -8.476694856379296539e-01 2.739555002956989505e+00
-7.092870783672227120e-01 6.486620997886074491e-01 2.431400202130691302e+00
-1.372182799114238128e+00 3.662132685680465904e-01 2.776767762695449004e+00
8.656028755333988745e-01 2.665416535972203738e-01 2.503812458588975609e+00
1.062199954017938985e+00 -9.327248844676976347e-01 3.159605822422370647e+00
1.792395920527171782e+00 -8.657553198923366722e-01 3.735766177328868398e+00
-4.810380919488541629e-01 2.127292245198881826e-01 2.573765746520247255e+00
-1.457357753478988771e+00 3.275792615715833467e-01 2.827234377207813676e+00
1.883998014206106353e+00 -8.635778483944942518e-01 3.758703365076863978e+00
-7.051117683758720833e-01 5.744547054945319253e-01 2.468291986543855732e+00
-1.775394532426196603e-01 -4.498280464885006658e-01 3.084622471891403706e+00
-1.531614674808801757e+00 -1.527626325612112534e+00 3.300300158959472263e+00
-1.727872663463571934e+00 -6.798795714746730390e-03 3.087020420407079691e+00
8.530165283657634712e-01 -1.710586267301809515e+00 2.847490913748140340e+00
-6.520740703649343661e-01 -1.009716110710749737e+00 2.724298643364358785e+00
8.117310674290088013e-01 -1.703887836157348401e+00 2.862378041505732718e+00
-4.921118606062657719e-01 -1.425256256178480951e+00 2.896524708914232971e+00
5.695889334209974786e-01 -1.459045631880694360e-01 2.794793827726248736e+00
-5.415657050054962784e-01 2.062630718831782728e-01 2.593652865821461706e+00
-6.461261523198813528e-03 -1.200791113328486315e+00 2.839603845725704900e+00
-1.385329931649718072e+00 -1.225611416931954523e+00 3.081942609751732398e+00
-1.205981714959617479e-01 -1.822721113005796312e-01 2.577582367714542411e+00
-5.251098360252579589e-01 -6.866035573045800033e-01 2.355515052942749321e+00
-8.698906920386371144e-01 -4.445241261124232013e-01 3.225690351291101265e+00
1.315363079780989652e+00 -1.939216883000460245e-01 2.962039842930492384e+00
1.042523418152849768e+00 -1.126725765143371749e+00 3.046505207424708761e+00
-6.446313841590052274e-01 -8.472054931515629050e-01 2.508239121573614394e+00
-4.716632082701461837e-01 -2.926560415769648982e-01 2.406605580231320207e+00
3.239766581432057535e-01 -1.765735366389874494e+00 3.033067262889185933e+00
1.933428815464377504e+00 -1.525605110793063712e+00 4.453864027331791320e+00
1.132384342402133814e+00 -4.839023879231683090e-01 3.194202951870418250e+00
8.509440618981098936e-01 -2.107656186814921284e-02 2.712284124128541141e+00
4.126386269202388379e-01 3.328749201156907533e-01 2.424561886386697118e+00
3.769556045682177503e-01 -2.387420434999713570e-01 2.814525239617609476e+00
-1.748179553041168566e+00 -1.324575408351711392e-01 2.932849702337670728e+00
1.601991058132291590e-01 -1.808971399815475278e+00 3.098237989430395523e+00
7.769890903210568966e-01 -5.409123084397848835e-01 3.134340873754543733e+00
1.086580799089241767e+00 1.854979868712115509e-01 2.604640705822837354e+00
-1.356528454609861933e+00 -6.425773695883510994e-01 2.958054768815779223e+00
1.605308331760368468e+00 -1.561323704069048413e+00 4.179877180685713789e+00
9.271866567467440534e-01 -1.147662002842130047e+00 3.072451305706682678e+00
-4.800247191321893592e-02 4.683050167583744372e-01 2.327059766751978120e+00
-7.400750133614741877e-01 -6.373857059725118734e-02 2.852466391434306914e+00
2.501807971841952805e-01 -1.551100142635940760e+00 3.023611525312621229e+00
9.099181393168983556e-01 -1.681106441317862243e+00 2.840626752353946571e+00
-1.225320224146556614e-01 -1.606940834075787139e+00 3.197067165440575565e+00
-6.645680752172400396e-01 -8.410270614902559672e-02 2.266149810511296270e+00
1.064393977290059468e+00 -6.754031874062088603e-02 2.790412143274025869e+00
2.412906928038071053e-01 6.513469821433237605e-02 2.554091404184681835e+00
-8.950123179829543307e-01 -2.388072941432845542e-01 2.476926818605296177e+00
3.188566525969940280e-01 -1.042529132207500764e+00 2.639247748118523695e+00
-5.074006897563656526e-01 -6.204687309766092618e-01 2.298307208523462375e+00
-1.860967645853040642e+00 -1.152142541299044476e+00 3.091079871274825308e+00
-1.192525718433085968e+00 -9.955719683443720047e-01 2.778737662887336590e+00
8.931372912493534821e-01 -7.062943342469740760e-01 3.363425350776140021e+00
-2.191804814253442979e-01 -7.388905079588725666e-01 2.352022604420802132e+00
4.323203908936037454e-01 3.962136014161898867e-02 2.632835228946301953e+00
1.198563199759780318e+00 -1.825854604794454827e+00 3.126090368028654698e+00
8.846046704774122027e-01 -2.127457581000616882e-01 2.886313560362845809e+00
-9.563471714931157663e-01 -5.182261114041393224e-01 2.744856778148746734e+00
8.771157214010998349e-01 -1.250881407597000061e+00 3.032275316076602945e+00
1.246985370663370007e+00 -1.917647618057793935e-03 2.785160934905204666e+00
-2.017377751402849029e-02 9.395134427631623986e-02 2.564088480410160464e+00
-2.745285614889434456e-01 -8.836721041092885365e-01 2.516081006073749293e+00
-1.989182856436043645e-01 5.779302689154164341e-01 2.355807338649911209e+00
1.081528228907591815e+00 -2.777574006568618303e-01 2.981360273861577870e+00
2.951831078045361045e-01 -1.618252621074643960e+00 3.108411902815743755e+00
1.720676828756136034e+00 -1.088498526286143964e+00 3.947362722693696924e+00
1.417912495992948774e+00 -4.670236155054963145e-02 2.871871232140609465e+00
-5.311949429688433977e-01 -2.553028747330166603e-01 2.390301119968098131e+00
-8.066998194627774676e-01 2.942586006494907203e-01 2.606858340298160215e+00
5.313404681930498086e-01 -1.661992914776010188e+00 2.979846543371162504e+00
-7.410838335215910178e-01 -8.241704020353017857e-01 2.543836065606904562e+00
-1.064420102174853167e+00 -1.077956187606111449e+00 2.801327750251195958e+00
1.659075345473264296e+00 -8.608908218716352367e-01 3.697057823278980582e+00
9.545270659136823044e-01 -1.320797209165308850e+00 2.970747995504992467e+00
-5.277187851100448857e-01 -4.043813078929613947e-01 2.522051794060654828e+00
1.287992606811218188e+00 -2.032318164846890873e+00 3.249985513140323690e+00
-1.376403259167095383e+00 -8.950628426734879017e-01 2.774650653043166493e+00
-9.186365642100857709e-01 4.086323802643140324e-01 2.621007890287782249e+00
4.046118570879786991e-01 -1.145564024871744468e+00 3.308398224766827322e+00
1.101316790833906101e-01 -7.034627717434739358e-01 2.937930097917075933e+00
1.104366645326191110e+00 -5.816817358176885611e-01 3.289332431835043646e+00
-3.577308643615546568e-01 9.240919305378714199e-02 2.632592771011111665e+00
9.685177888850630135e-01 -1.344960129866739074e+00 2.955022330717278045e+00
1.391281259865934317e+00 7.199207654091233088e-02 2.775083426982295709e+00
3.949591056836986303e-01 3.601971002269730437e-01 2.408835318683203663e+00
1.225723569906165267e+00 -6.208817176444042518e-02 2.826174758470375803e+00
2.740880527512939424e-01 -9.451156878583941712e-01 2.633404881640270645e+00
-6.600728279096095275e-01 7.573279250753475189e-01 2.369440039358789996e+00
8.094285206166557112e-01 2.370724718316218338e-01 2.513897995610385738e+00
-1.454026029371390250e+00 -1.068734703710341405e+00 2.959588607982824637e+00
1.382053764377337846e-01 -8.486079586562513821e-01 2.955057814972071206e+00
9.747521530552083480e-01 7.782841964498399268e-02 2.655325964657524906e+00
-6.005994487350700961e-01 -6.821997212123122045e-01 2.380956131754536464e+00
6.926464890578909461e-02 -1.481269531622096958e+00 3.300814591885211424e+00
-4.874422460788330191e-01 -8.280774723055396302e-01 2.456246274261606022e+00
-7.365958229523794643e-03 -1.750304186364371350e+00 3.212684050406148906e+00
1.225108166651311503e+00 -4.248603120726146543e-02 2.810411326974745716e+00
-1.407234050410841375e+00 -1.190509337396255418e+00 3.069186755212689910e+00
-5.789989854469126396e-01 -1.289590815142235836e-01 2.321128610420036154e+00
-3.321525546405503793e-01 -8.551729724684067335e-01 2.431114945231946045e+00
7.651156908299395765e-01 3.027963306116909781e-02 2.658149723616378690e+00
9.203724491821938525e-01 -1.234461902773714037e+00 3.025578100882101218e+00
-8.777341578785446963e-02 -5.993173205630545342e-01 2.180999428430675735e+00
-5.414761856273542229e-01 4.217319842520043105e-01 2.514503876574150087e+00
1.957372730779741721e-01 4.507435878297636478e-01 2.367808202826047648e+00
-3.785124231956662477e-01 -7.378841182128872411e-01 2.373635300714717733e+00
1.757097675121468860e+00 -5.277382234055416621e-02 2.998395874336976963e+00
-2.144954380205205124e-01 -1.149624722276631594e+00 2.756520087773938421e+00
1.454082757563408990e+00 9.754217898882755478e-03 2.841459913337683219e+00
5.362995076322687460e-01 -1.654481027437714191e-01 2.743736520127877831e+00
-5.222432404218362301e-01 -8.743907134007973259e-01 2.482717706826228277e+00
8.088931219046116006e-01 -4.169570915153735235e-01 3.077319867237674700e+00
-7.197377113980218954e-01 6.738789413105199522e-01 2.421436983687009548e+00
1.297605032471036424e+00 -3.150639044711522896e-01 3.067056147961860990e+00
-2.614002576640432896e-01 -4.302751971452399293e-01 3.079366165407103395e+00
1.189672907121072321e+00 -2.766520970127701040e-01 3.004023994752199389e+00
9.075682565993640205e-01 -7.272916819287389423e-02 2.763821923261028601e+00
-4.368951422155993303e-01 -7.400583857073893546e-01 2.388844713664665775e+00
-3.738602155703163454e-01 -9.891922867246762952e-01 2.536994791270637872e+00
-1.391093651521281727e+00 -6.030024791598252998e-01 2.931122958448056259e+00
5.025147097376526650e-01 -3.458070316186157012e-01 2.918444375587230244e+00
-4.542526444825476517e-01 6.685623820735406841e-01 2.363058789006039717e+00
-1.310337788843600526e+00 -1.526381751049552538e-01 2.643226477301363175e+00
-1.162598609519443160e+00 -1.366119784454032704e+00 3.181166366142873958e+00
-8.038476183307967649e-01 -6.861094298381280598e-01 2.436410085317367802e+00
7.330944818668155838e-01 4.616893859633264263e-03 2.675725946980759051e+00
1.673007049186610473e+00 4.468989994262284604e-02 2.895977768977628486e+00
-6.115445938500831957e-01 2.812895304045128775e-01 2.560036933926522984e+00
1.450157119550836704e+00 -1.556456576636618960e+00 3.643252942292185992e+00
9.563437900819037329e-01 -2.690180434621930461e-01 2.950553935267157257e+00
5.035950295849571656e-01 -6.461191591922633704e-01 3.236655823505637297e+00
1.292662125701563802e+00 -2.474909633477209159e-01 3.003626575204863425e+00
-5.764682024712306507e-01 6.782026528865552351e-01 2.385874140382363784e+00
6.856957404992954919e-01 -7.886379410607242679e-01 3.392826280953763707e+00
3.309167212104192068e-01 1.148349442245597540e-01 2.529907862663191676e+00
1.853202315709901460e-01 -9.918952804795828637e-01 2.744766340525304216e+00
-9.286970621248019642e-01 -1.662314177836494267e+00 2.240639605992543970e+00
4.384449158233029165e-01 -2.236290047110215617e+00 2.822989323500614933e+00
3.326385616788373190e-01 -1.402597304061489858e+00 2.872114569456077238e+00
5.522796899215426381e-01 -2.203561458293264330e+00 3.056044527139084810e+00
-4.182762905954681143e-01 -5.482825469696214205e-01 2.298546415884205274e+00
8.566668095465612698e-02 -1.056064413759071119e+00 2.751193810519080518e+00
1.577029334061992305e+00 -1.427747641535058731e-01 2.224739686718784970e+00
-1.688032465011286121e+00 -1.377254689668908405e+00 2.373475881822094902e+00
-1.279976534215165440e+00 -1.629852599293498461e+00 2.237766585999890978e+00
2.104666783090425319e-01 -1.200753489495296478e+00 2.905034344137451541e+00
-1.740202027670900709e-01 -1.503140777530951322e+00 3.034204362437574076e+00
4.875793437945723507e-01 -6.301631214435982065e-01 2.365732632918256417e+00
-2.206663720715113186e+00 -1.112066908468825943e+00 3.250101857862807808e+00
-5.740596104043352854e-01 -1.373430822717119693e+00 2.630693626464903900e+00
1.621918169613048022e+00 -4.337172261994924338e-01 2.447571670809856048e+00
1.536495056362287226e+00 -1.782652908134002567e-01 2.231583954640820266e+00
-8.087624853595350993e-01 -7.104491133738277675e-02 2.008684038942304184e+00
-5.430524575692595723e-01 -9.766525939271410994e-01 2.743236199847879142e+00
2.388518718269265761e-01 -8.964195247221116158e-01 2.640233332333019156e+00
9.590666974685702062e-02 -6.351708768731801902e-01 2.376882230619389080e+00
-5.659105561706413434e-01 1.869867247887159190e-01 1.843827712388018014e+00
-6.900792874915179231e-01 -9.037864185737516376e-01 2.696411809490449674e+00
1.660864178983839867e+00 -2.099773202998266974e+00 4.085214338768617282e+00
1.044990342828287178e+00 -3.009583758365716122e+00 4.097433495151326710e+00
-5.959938499265206024e-01 4.763487088605429243e-01 1.711723061538341195e+00
-3.112884208925074114e-01 -5.475529265364167397e-01 2.277437686236465364e+00
-9.322771725324457970e-01 3.465181968927668610e-01 1.849888755822099551e+00
4.657792966223605058e-01 -7.327512503343639461e-01 2.469252464804529090e+00
-5.172186644780399911e-01 2.656016147105100256e-02 1.929249020325404906e+00
-3.395851480820157864e-01 -5.443957779085676352e-01 2.279270874423626303e+00
3.513921788633047050e-01 -1.940367690472826201e+00 2.662947955130884115e+00
2.494503995241303951e-02 1.803783974389682188e-01 1.746728905952559252e+00
2.137519952226369924e-01 -1.420421340649170583e-01 1.935759253126081436e+00
-7.020186648615479585e-01 -1.990847341645892055e+00 3.030839271105608912e+00
-7.713303029896977359e-01 -1.711213281637529171e+00 2.531340689470751304e+00
8.904819545021828153e-01 -7.980623304535038320e-01 2.577302819143058699e+00
5.886731766395224552e-01 -4.992852530950367407e-01 2.245742775132216540e+00
1.532913053215708032e+00 -1.746037175859794566e+00 3.687513225383167281e+00
-7.830504294206824811e-01 4.622435916937008837e-01 1.759066388022337168e+00
-1.000266952308296320e-01 -1.435589380839969564e+00 3.040355605730622912e+00
8.024100956301116749e-01 -1.700922448333308523e-02 1.898153964980812347e+00
1.465800054627739435e-01 -2.960286112817229753e-01 2.060550558235944685e+00
3.412001016646060148e-02 -3.765157873085870355e-01 2.138616994600444077e+00
-1.518599617462363938e+00 -2.544832026436932848e-01 2.337618245224529101e+00
-1.790227474308024203e+00 -1.356734792493791364e+00 2.377014901573052619e+00
-4.051359991005810679e-01 9.556332892894425779e-02 1.861443436358596770e+00
4.622103007933223706e-01 -5.494141429451699921e-01 2.285679859439388117e+00
-1.417442481481287153e+00 -6.802477418972090462e-01 2.657315641305415976e+00
1.470911693735205805e+00 -1.787195284558336539e+00 3.721219001258439629e+00
-2.544887336671108891e-01 -1.895032661066504698e+00 2.852710218632818595e+00
1.237332752080206877e-01 2.088811926603645341e-01 1.724395683099462229e+00
3.451044648204810161e-01 1.000871817348586434e-01 1.777016602377252230e+00
-5.041964197060747610e-01 -4.454226287740825629e-02 1.965758843475373219e+00
-2.553308345579163863e-02 -7.275461989708648103e-01 2.463315363776884759e+00
-8.545688184092355977e-01 4.667188029725730658e-01 1.773697205864231297e+00
1.231548057004977492e-01 -1.570470179682070810e+00 2.854866761388398011e+00
8.733192270543471691e-01 -1.515509537939591311e+00 3.348117968135843281e+00
-2.073858970178401595e+00 -9.484280309602906023e-01 2.500186124756393458e+00
-8.158615586788297014e-01 -1.300536871160089536e+00 2.111537854282640847e+00
6.584413888204224685e-01 -2.617323707418165668e+00 3.603375290711060774e+00
2.992986802194551599e-01 -8.186313415450985342e-02 1.889677610070071179e+00
3.217852362570888802e-01 -2.069030856245862582e-01 1.981978718623874869e+00
8.412576704318044385e-01 -1.428078348554720600e+00 3.248183581597866798e+00
-1.013236338798309433e+00 -1.589437343887237786e-01 2.123470410925391239e+00
3.104921541399745522e-01 -1.917361693225778652e-01 1.970099361398391036e+00
-1.390711351804417184e+00 -5.136368694036148597e-01 2.507128558874573976e+00
-1.150620556985966214e+00 -8.500499996289855309e-01 2.174978931117356407e+00
-1.760438209001979892e+00 -4.211709629119095299e-01 2.285754804645487415e+00
-8.660554798130201126e-01 6.406902156652398705e-01 1.706452056913874138e+00
-4.748568031321737104e-01 -1.537011442315284970e+00 2.299311707868582300e+00
-9.508870190985331261e-01 -1.281716804491768169e+00 3.133652707226457501e+00
1.654066224344739044e+00 -1.050508655001990865e+00 3.002026098338371085e+00
-3.686196182317474923e-01 -2.911899290308980759e-01 2.064591852614340528e+00
-3.231891943225753128e-01 -8.404279333857200829e-01 2.567052761914839110e+00
1.625043182494548599e+00 -6.275268892410996724e-01 2.606808572174746708e+00
-3.272570368066782809e-01 1.824821899080940613e-01 1.796987704511303185e+00
-8.452136656542511561e-01 5.278363675224746476e-01 1.745335341841528276e+00
7.429408281449104701e-01 -1.203244474180154011e-02 1.882905981329060285e+00
9.497039205280100038e-02 2.161000484359731910e-02 1.831754185234818255e+00
1.393137519663248725e+00 -1.676869376472992279e+00 3.590498707966238712e+00
2.344514369138435694e-01 2.020699598856972035e-01 1.724560756368958891e+00
-7.585590639742562091e-01 -3.772668017323144163e-02 2.001976139545101230e+00
3.890198855680424561e-01 -1.916067686881940402e+00 2.742050181334353631e+00
1.397072167959619193e+00 -1.291445811220971462e-01 2.147157349386246139e+00
1.512214780499475442e+00 -1.914633272412161746e-01 2.231507536954149273e+00
1.104800264821944822e+00 -2.832156191221840702e-01 2.159189481126552845e+00
1.558204491991066476e-03 -1.936130194726654707e+00 2.717763499858701248e+00
-2.515723102988487891e+00 -1.212269496354459575e+00 3.003428794959947190e+00
1.258931322325343327e+00 -5.347599121500576924e-01 2.410628425959276289e+00
6.017131465184756278e-01 1.623583776418024982e-02 1.844152667112648025e+00
3.120152911311598332e-01 -2.721286041191883776e-02 1.853008537250614207e+00
-1.148737443740719399e-01 -1.631272347256286448e+00 2.927254950059300587e+00
-1.250561221640874354e+00 -3.303496811328678340e-01 2.107243302136028618e+00
1.265798062268790325e+00 -8.621715112416322713e-01 2.717123730094916922e+00
-1.368580124972300194e+00 -8.590349881152741229e-01 2.239815748991020428e+00
-6.476132114315339416e-01 -8.786625800415507337e-01 2.662705088919173235e+00
-1.141515748063680835e+00 -7.066967917831248336e-01 2.458418314784032610e+00
-1.672327941706052146e-01 -2.579857614398947119e-01 2.064851493704855656e+00
-2.415727591935262764e-01 -2.430782735859895460e-01 2.065481087315309772e+00
3.158273388281425675e-01 9.206369494782651319e-02 1.780839502534297569e+00
5.129132714206707799e-01 -3.196664844048248688e-01 2.079829149402312893e+00
1.229191631123828232e-01 3.802636505260559296e-02 1.819374753063645489e+00
1.002961716708721474e+00 -3.859044998287304851e-01 2.214529563934433565e+00
-1.892947218054221725e+00 -9.209479879208362085e-01 2.429928667297314604e+00
-1.367729705052224354e+00 -4.656469654439205352e-01 2.460630413899595137e+00
-1.123076787660647113e+00 -8.778277030697021477e-01 2.193693392597213965e+00
-3.642355255533568092e-01 -2.371147261800273798e-01 2.068790297489497831e+00
-2.489109993305866020e+00 -1.254278258279655667e+00 3.018091239734042031e+00
-7.996948886143994129e-01 -1.109763810035188314e+00 1.917976974460287032e+00
-9.393701359216041213e-01 -1.216496028141203167e+00 3.064022166867695240e+00
7.806705755255928247e-01 -1.835108897748533030e-01 2.006742679694725862e+00
7.479817346744044304e-02 -6.018084762492091899e-01 2.345269876941644682e+00
5.268573927679297553e-01 -2.600391366908814117e-01 2.032171068229495337e+00
-7.804198507211562719e-01 3.922291775766160171e-01 1.790213740877866666e+00
4.604393748223722937e-02 -1.535561188787832210e+00 2.909473977003173228e+00
-1.067125542552479711e+00 3.763417028664235442e-01 1.869453201537821574e+00
-3.892905827142590924e-01 -7.045406196989529857e-01 2.441565625007231510e+00
4.931318152159364088e-01 -1.506877842613056906e+00 3.040331638242578016e+00
3.038892459906201715e-01 -3.660542277942064326e-01 2.113669150325530044e+00
1.328795866578459162e+00 -9.078362170239703266e-01 2.777496819217167623e+00
-5.594928096660493066e-01 -1.294659419352496066e+00 2.118266746014494828e+00
1.134853854505376569e-01 -8.013504741726770186e-01 2.544984585632085849e+00
-4.339509078507112205e-01 -4.882411876510253101e-01 2.246371998946673720e+00
1.509575906057905925e+00 -3.295328526549076154e-01 2.327609523285359305e+00
-9.761990882160492822e-01 -1.603703820408610703e-01 2.114391491879227036e+00
-6.988355157872324641e-01 -4.816758526606764179e-01 2.177586809758101261e+00
-1.986626921448051419e-01 -2.388332716148602319e-01 2.054561851928756955e+00
1.125495013075868966e-01 -4.334590019790335313e-01 2.183257291461290883e+00
-2.017409983543546836e+00 -1.005112653277157264e+00 2.534883327052662505e+00
-2.154842529802959206e+00 -1.080858479558526763e+00 3.208201158101166683e+00
7.415766572328512662e-01 -8.679550399829483176e-01 2.629870914060604470e+00
9.789779874903770107e-02 6.817709396415105871e-02 1.802197465415900535e+00
-5.678961492411512824e-01 -7.021508248732803992e-01 2.473237601765619686e+00
4.194795984724514759e-01 -2.560813410539236612e-01 2.022621559150944659e+00
-6.751806114548685178e-01 -8.059137349628952007e-01 2.596523580360905470e+00
2.048026798830115958e-02 -1.767855991633734636e+00 2.790505721885321311e+00
-3.775891679553743385e-01 -5.946894859376261611e-01 2.333669168311612641e+00
-7.045104610464915096e-01 -4.956997170601237790e-01 2.169433544361642152e+00
-1.332819819407778272e+00 5.915886695997762956e-02 2.124727193192184060e+00
3.800762545338539633e-01 -1.612683674899201058e+00 2.764863208321111543e+00
-1.450198072751210265e+00 -8.388816271414768488e-01 2.242822967207139584e+00
8.009565709906280029e-01 -3.888370067738812219e-01 2.174015503908378388e+00
3.597208039695096726e-01 5.750153554245218679e-02 1.802254183268030552e+00
1.798736130624615792e-01 -1.152535499857576529e+00 2.852797106896664658e+00
8.245415481186003648e-01 -1.303283718479945730e+00 3.108361730525706967e+00
1.095420354759282455e+00 -6.159225910882232258e-01 2.439811230009447218e+00
-8.239535180085538757e-01 -1.492118384105160178e+00 2.309945027872199130e+00
5.428646755971222593e-02 2.827026122091029769e-01 1.694695132580820385e+00
5.728730511870774311e-01 -6.967145670758702058e-01 2.437454314304337011e+00
-4.358515375643267076e-01 2.348032939364528282e-01 1.790487714909296368e+00
-1.699349811104530428e+00 -1.260074067675668097e+00 2.266480735910721300e+00
-1.453422491040634590e+00 -1.572548163341683125e+00 2.512708659965539937e+00
9.852996424757909377e-01 -1.169931554749978897e-01 2.006186485716108692e+00
1.370554119442709773e+00 -4.407071452932403433e-01 2.365716675726167395e+00
-1.627710090985421409e+00 -2.224874516391568413e+00 3.422669141437110429e+00
1.121367945927105092e+00 -1.640166373873825911e+00 3.512609652191837739e+00
4.496253693220331193e-01 -7.332021855350585593e-01 2.468740748198251289e+00
8.148306759976814417e-01 -3.883948406885380789e-01 2.177073665630926858e+00
-1.837849496618668255e+00 -1.663675745259302063e+00 2.603040356684044987e+00
-1.053084522968138259e+00 4.321436943013630128e-01 1.839158805488048110e+00
-1.891975263806700003e-02 -1.089308342589000445e+00 2.794685832435640283e+00
4.571065330558943263e-02 -8.628869802945369205e-01 2.558413843510546126e+00
-6.597206849437731169e-02 -1.324972212164221785e+00 3.079716802537904030e+00
-2.167670098552909597e-01 -6.881215686448116653e-02 1.931016651637493808e+00
-4.540275057605558384e-02 2.239220874362082281e-01 1.732547572640119604e+00
-8.881100760226062762e-01 3.677424211570756718e-01 1.827801330119098289e+00
-1.161215901841299747e+00 -1.318654795637105304e+00 2.182938698720518378e+00
8.378324002582757668e-01 -1.336962639997468782e-01 1.982000362390909487e+00
-2.732171722193824648e-01 -1.303411197711655811e-01 1.985580356072315755e+00
-9.290309873721188660e-01 4.635397049665399560e-01 1.792879390761400682e+00
1.461486143612407140e+00 -1.186958186974999663e+00 3.088674963377215033e+00
-8.222605466292091103e-01 2.272668622797857640e-01 1.884171455058778033e+00
8.820815761921420028e-01 -1.880066698433323635e-01 2.030232142456860789e+00
-1.743118245667974797e+00 -1.260513538557945346e+00 2.277151463656843511e+00
9.354266581504546707e-01 -6.743818887116939109e-01 2.462303208477208294e+00
7.970978818021547951e-01 -5.824859082656571596e-01 2.350006854139395696e+00
3.228281775554682764e-01 -1.749166216474254743e+00 2.680112327052726062e+00
-1.195605394124473086e+00 -1.766728633966430095e-01 2.187155142264158858e+00
1.566636932871817933e+00 -7.682044553045338509e-01 2.710964088947950046e+00
1.287792668301202426e+00 -2.657031233435355189e-01 2.202394312132255116e+00
-8.743005158688900158e-01 -1.642578023236366924e+00 2.463814973733295055e+00
-1.259726981010033331e+00 -7.750606595911556651e-01 2.136498890862317257e+00
-1.039438976044376961e+00 -4.448672068481988040e-01 2.353902544716541367e+00
6.223429925557051323e-01 -2.380654278204184848e+00 3.186094421015410294e+00
9.832299556380286187e-02 -1.486528543665773805e+00 2.917214610263437091e+00
8.431431166393885679e-01 -2.516375995407766908e-01 2.070397230562512902e+00
-5.345192383274258718e-01 4.089940079576284138e-01 1.727362546148679900e+00
-3.148350595760021076e-01 1.388780243857282715e-01 1.818706318909510067e+00
1.072452521045351936e+00 -6.786899730271622744e-02 1.998246860749208764e+00
7.740899033681307717e-01 -2.486293008076387867e-01 2.054079115639908526e+00
-1.111732487974423922e+00 -1.631840219113778634e+00 2.302414651430617631e+00
1.851990521948998492e-02 1.286414313785519958e-01 1.775592914755206309e+00
-1.704640300822366061e+00 -1.538213974504082149e+00 2.510562125189111704e+00
-5.164553360778058044e-01 -1.320390351926732819e+00 2.182055085264662075e+00
1.086459779289528083e-01 2.317820379272850229e-01 1.714608419468333533e+00
1.044840060416474037e+00 -1.169651280852432640e+00 2.991280393870562548e+00
1.636260662737404559e+00 -4.657834274462971380e-01 2.477669254914215191e+00
5.465921470472866472e-01 -1.596114822572572978e+00 3.138921368877873430e+00
-1.370943460281754955e+00 -3.104496923022402877e-01 2.337554172394447516e+00
-1.435862159773478863e-01 1.231511564416436499e-01 1.798831968080087051e+00
6.655840458582698016e-01 -1.996270785412616267e+00 3.321864476856428716e+00
-7.658973972813533093e-01 -2.687231027563390384e-01 2.140160502929746578e+00
7.549797015226353825e-01 -1.544059679304254029e+00 3.370199352543918891e+00
3.485436979002569102e-01 1.266611682432042807e-01 1.763132082225113084e+00
-1.010702620012371877e+00 -1.239957351079103542e+00 2.873762514529196288e+00
2.904816204308576233e-01 -1.761509953809695439e+00 2.686373944963154958e+00
-1.180117684407266943e-02 -7.675712153802938253e-02 1.907287320238432393e+00
-1.885392752477836886e-01 3.607111041102943894e-01 1.687626869568848553e+00
1.539855330988809667e+00 -8.260393405773471809e-01 2.756775091819378076e+00
1.279291035109334063e+00 -6.291171618111061070e-01 2.499951639385363134e+00
1.193358595774191455e+00 -3.467525024000197020e-01 2.233619030082564905e+00
-6.802349152915766473e-01 -1.082840213638937454e+00 1.978517126305406215e+00
1.350972967678639280e+00 -4.941211987226059588e-01 2.402883443330117164e+00
-2.195797717956885720e+00 -1.096966719553142955e+00 2.660576983387614725e+00
-7.904322463971081847e-01 5.728606789982053638e-01 1.715058012413539723e+00
1.469017360271839934e+00 -2.025253490738486484e+00 3.977630318744453941e+00
1.102064508962447009e-01 -4.094364005708386878e-01 2.161018285377874104e+00
-6.936256838011102266e-01 -1.480363882871867265e+00 3.305391023153821717e+00
-8.573351416263231828e-01 2.489581437182901702e-01 1.881170581527065178e+00
7.021460168030458915e-01 -5.054214421574132476e-01 2.263789045630962171e+00
1.528590117560822303e+00 -8.178550696866524472e-01 2.745009930156156130e+00
6.751492126291896989e-01 -1.886249080709711867e+00 3.362941355588230152e+00
5.001112536043128554e-02 -2.007095404892181634e+00 2.666533054361192701e+00
9.169210561809801874e-01 -1.498694120468246904e-02 1.922403254794498917e+00
-1.287835164681562450e+00 -8.154733632105399810e-01 2.179713961989679039e+00
7.716845437559143317e-01 -8.323219848708225399e-01 2.596321432836751875e+00
-7.507028999891954824e-01 -1.481804343131469803e-01 2.045070126118244680e+00
8.608905487470523976e-01 1.566107914904291132e-02 1.891251309397252278e+00
3.517537391855546924e-01 -1.094220247275488056e+00 2.853266300466193339e+00
1.498919418441348794e+00 -2.327586905266367800e-01 2.254625639611619103e+00
1.269874096204979708e+00 -1.314523984064294382e+00 3.182516795213087057e+00
4.085568433150522094e-01 -7.424119590589679518e-01 2.477093668479638744e+00
-2.631688401277376244e+00 -1.324519436951363094e+00 2.904314785434661150e+00
-6.279520170213065411e-01 -1.870466727107742200e+00 3.053472363462010009e+00
8.388774428276514206e-01 -4.742311871246084332e-01 2.256913042241920575e+00
-1.812288327982831682e-01 4.410338001472302594e-02 1.851721693790055134e+00
-5.215619984840503820e-01 -3.253900436757901082e-01 2.125882364481472830e+00
1.092161482984364440e+00 -2.586035038732110714e+00 4.255832136938455079e+00
-2.818057823861130906e-01 -1.357930152576177774e+00 3.165727223875170804e+00
3.239653224726425362e-01 -7.108357691608440110e-01 2.443684404596384141e+00
7.144429301627361895e-01 -2.342486777412680521e+00 3.747725902776552598e+00
1.467227238355780727e+00 -1.150394801881722939e+00 3.052778045878969060e+00
5.824806646980871250e-01 -6.858566400886545456e-02 1.896115546602251456e+00
1.128545190042203883e+00 -1.098750674522734672e+00 2.929376246738154332e+00
-6.854691047163540274e-01 -6.105622235440599788e-01 2.412297294305130624e+00
-6.728921119506902082e-01 -4.416862640046768651e-01 2.195915849274626019e+00
4.700484772593442884e-01 1.090985450287090819e-01 1.778046264971191448e+00
-1.483321852294575471e+00 -1.216311614685771758e+00 2.176279443855676732e+00
-1.254658389019210674e+00 -1.123762312668706853e-01 2.213780694877685029e+00
-1.678457465159673756e+00 -1.389294033199969025e+00 2.382893992080505896e+00
3.688597514409874822e-02 -1.206623742263691623e-01 1.932955518301182618e+00
5.398583897333999460e-01 -1.332367007508572065e+00 3.122169765281509246e+00
7.709386592506617397e-01 -6.076203984313390816e-01 2.370033083194633683e+00
8.118363514823000449e-01 -2.851406677826588965e-01 2.090432423491395575e+00
-6.050238451763029213e-01 3.312869279518153576e-01 1.778055071095008266e+00
-1.441540197828817593e+00 -7.701470335847185877e-01 2.180639679745255410e+00
-2.600569434473035679e-01 -2.600461517447449911e-01 2.083009882841762472e+00
-1.127113618905349668e+00 1.499726783553289033e-01 2.010167963484841280e+00
1.700642098953282666e+00 -3.001788035101615182e-01 2.379531327042904820e+00
1.343075664907801947e+00 -1.375950177049513945e+00 3.260637708494276588e+00
4.892834633459208771e-02 -1.086587181969209670e-01 1.923230307823853735e+00
3.842753897828433685e-01 -1.141195580208652194e+00 2.905910364867732021e+00
8.736070807195768229e-01 -4.667963691505747081e-01 2.256337098804866770e+00
-1.200902489230166736e+00 -1.043628542334132936e+00 2.943588465012151545e+00
-2.367837722293558045e+00 -1.217046030527882960e+00 3.122588309498384174e+00
1.031316196710188704e+00 -8.274496330441039049e-02 1.995489296931597600e+00
-1.066306094387224679e+00 -7.687407007854208940e-01 2.120164913460580447e+00
-8.329385515361698022e-02 -1.425973003063644828e+00 3.038820095989758663e+00
-3.798008465555536839e-01 -6.828013852131112893e-01 2.418926035571281385e+00
3.020309117173443636e-01 -2.486635985990828246e-01 2.014860310712913272e+00
-3.511962796551910682e-01 3.477081995476132281e-01 1.720010335150770731e+00
-1.402318367135159116e-01 -1.286656085158941920e+00 3.022052735319515904e+00
1.170891255541030684e+00 -7.873607684984337274e-01 2.621800874661977865e+00
-1.081478376316839185e+00 -7.649914089262830341e-01 2.092355454289323013e+00
7.181462151870365851e-02 -3.204980859438296137e-01 2.087111740396051296e+00
8.643510212682421479e-01 -6.537706503612998876e-01 2.430016161515178741e+00
